ply
format ascii 1.0
element vertex 699
property float x
property float y
property float z
property uchar red
property uchar green
property uchar blue
end_header
-0.02329631494834499 -0.4175797521524351 0.1264507697700042 0 255 0
-0.009086491695511938 -0.4175797521524351 0.1264507697700042 0 255 0
0.0051233315573211155 -0.4175797521524351 0.1264507697700042 0 255 0
0.01933315481015417 -0.4175797521524351 0.1264507697700042 0 255 0
0.03354297806298723 -0.4175797521524351 0.1264507697700042 0 255 0
0.04775280131582028 -0.4175797521524351 0.1264507697700042 0 255 0
0.06196262456865334 -0.4175797521524351 0.1264507697700042 0 255 0
0.07617244782148638 -0.4175797521524351 0.1264507697700042 0 255 0
0.09038227107431944 -0.4175797521524351 0.1264507697700042 0 255 0
0.1045920943271525 -0.4175797521524351 0.1264507697700042 0 255 0
0.11880191757998557 -0.4175797521524351 0.1264507697700042 0 255 0
0.1330117408328186 -0.4175797521524351 0.1264507697700042 0 255 0
0.14722156408565165 -0.4175797521524351 0.1264507697700042 0 255 0
0.16143138733848472 -0.4175797521524351 0.1264507697700042 0 255 0
0.17564121059131776 -0.4175797521524351 0.1264507697700042 0 255 0
0.1898510338441508 -0.4175797521524351 0.1264507697700042 0 255 0
0.20406085709698388 -0.4175797521524351 0.1264507697700042 0 255 0
0.21827068034981695 -0.4175797521524351 0.1264507697700042 0 255 0
0.23248050360265002 -0.4175797521524351 0.1264507697700042 0 255 0
0.24669032685548306 -0.4175797521524351 0.1264507697700042 0 255 0
0.26090015010831613 -0.4175797521524351 0.1264507697700042 0 255 0
0.2751099733611492 -0.4175797521524351 0.1264507697700042 0 255 0
0.2893197966139822 -0.4175797521524351 0.1264507697700042 0 255 0
0.30352961986681526 -0.4175797521524351 0.1264507697700042 0 255 0
0.31773944311964836 -0.4175797521524351 0.1264507697700042 0 255 0
-0.8616758868654952 -0.40336992889960205 -0.23108307633227684 0 255 0
-0.8474660636126622 -0.40336992889960205 -0.2291050190924302 0 255 0
-0.833256240359829 -0.40336992889960205 -0.22663244754262188 0 255 0
-0.819046417106996 -0.40336992889960205 -0.2241598759928136 0 255 0
-0.804836593854163 -0.40336992889960205 -0.22218181875296694 0 255 0
-0.7906267706013299 -0.40336992889960205 -0.21970924720315863 0 255 0
-0.7764169473484969 -0.40336992889960205 -0.21773118996331198 0 255 0
-0.7622071240956638 -0.40336992889960205 -0.2152586184135037 0 255 0
-0.7479973008428308 -0.40336992889960205 -0.21278604686369537 0 255 0
-0.7337874775899976 -0.40336992889960205 -0.21080798962384872 0 255 0
-0.7195776543371646 -0.40336992889960205 -0.20833541807404043 0 255 0
-0.7053678310843315 -0.40336992889960205 -0.2063573608341938 0 255 0
-0.6911580078314985 -0.40336992889960205 -0.20388478928438547 0 255 0
-0.6769481845786655 -0.40336992889960205 -0.20141221773457718 0 255 0
-0.6627383613258324 -0.40336992889960205 -0.19943416049473053 0 255 0
-0.6485285380729994 -0.40336992889960205 -0.19696158894492222 0 255 0
-0.6343187148201663 -0.40336992889960205 -0.1944890173951139 0 255 0
-0.6201088915673333 -0.40336992889960205 -0.19251096015526728 0 255 0
-0.6058990683145001 -0.40336992889960205 -0.19003838860545896 0 255 0
-0.5916892450616671 -0.40336992889960205 -0.18806033136561232 0 255 0
-0.577479421808834 -0.40336992889960205 -0.18558775981580403 0 255 0
-0.563269598556001 -0.40336992889960205 -0.1831151882659957 0 255 0
-0.549059775303168 -0.40336992889960205 -0.18113713102614906 0 255 0
-0.5348499520503349 -0.40336992889960205 -0.17866455947634075 0 255 0
-0.5206401287975019 -0.40336992889960205 -0.17668650223649413 0 255 0
-0.5064303055446688 -0.40336992889960205 -0.1742139306866858 0 255 0
-0.49222048229183574 -0.40336992889960205 -0.1717413591368775 0 255 0
-0.4780106590390027 -0.40336992889960205 -0.16976330189703084 0 255 0
-0.46380083578616965 -0.40336992889960205 -0.16729073034722255 0 255 0
-0.4495910125333366 -0.40336992889960205 -0.1653126731073759 0 255 0
-0.4353811892805035 -0.40336992889960205 -0.1628401015575676 0 255 0
-0.42117136602767047 -0.40336992889960205 -0.1603675300077593 0 255 0
-0.4069615427748374 -0.40336992889960205 -0.15838947276791265 0 255 0
-0.3927517195220044 -0.40336992889960205 -0.15888398707787432 0 255 0
-0.37854189626917134 -0.40336992889960205 -0.156411415528066 0 255 0
-0.36433207301633824 -0.40336992889960205 -0.15443335828821936 0 255 0
-0.3501222497635052 -0.40336992889960205 -0.1524553010483727 0 255 0
-0.33591242651067216 -0.40336992889960205 -0.14998272949856442 0 255 0
-0.3217026032578391 -0.40336992889960205 -0.14800467225871777 0 255 0
-0.30749278000500607 -0.40336992889960205 -0.14553210070890946 0 255 0
-0.293282956752173 -0.40336992889960205 -0.1435540434690628 0 255 0
-0.27907313349933993 -0.40336992889960205 -0.14108147191925452 0 255 0
-0.2648633102465069 -0.40336992889960205 -0.13910341467940787 0 255 0
-0.25065348699367385 -0.40336992889960205 -0.13663084312959956 0 255 0
-0.2364436637408408 -0.40336992889960205 -0.1346527858897529 0 255 0
-0.22223384048800776 -0.40336992889960205 -0.13267472864990626 0 255 0
-0.2080240172351747 -0.40336992889960205 -0.13020215710009797 0 255 0
-0.19381419398234165 -0.40336992889960205 -0.12822409986025132 0 255 0
-0.17960437072950858 -0.40336992889960205 -0.125751528310443 0 255 0
-0.16539454747667554 -0.40336992889960205 -0.12377347107059637 0 255 0
-0.1511847242238425 -0.40336992889960205 -0.12130089952078806 0 255 0
-0.13697490097100942 -0.40336992889960205 -0.11932284228094142 0 255 0
-0.12276507771817637 -0.40336992889960205 -0.1168502707311331 0 255 0
-0.10855525446534332 -0.40336992889960205 -0.11487221349128647 0 255 0
-0.09434543121251027 -0.40336992889960205 -0.11239964194147815 0 255 0
-0.08013560795967721 -0.40336992889960205 0.1264507697700042 0 255 0
-0.06592578470684415 -0.40336992889960205 0.1264507697700042 0 255 0
-0.051715961454011104 -0.40336992889960205 0.1264507697700042 0 255 0
-0.03750613820117805 -0.40336992889960205 0.1264507697700042 0 255 0
-0.02329631494834499 -0.40336992889960205 0.1264507697700042 0 255 0
-0.009086491695511938 -0.40336992889960205 0.1264507697700042 0 255 0
0.0051233315573211155 -0.40336992889960205 0.1264507697700042 0 255 0
0.01933315481015417 -0.40336992889960205 0.1264507697700042 0 255 0
0.03354297806298723 -0.40336992889960205 0.1264507697700042 0 255 0
0.04775280131582028 -0.40336992889960205 0.1264507697700042 0 255 0
0.06196262456865334 -0.40336992889960205 0.1264507697700042 0 255 0
0.07617244782148638 -0.40336992889960205 0.1264507697700042 0 255 0
0.09038227107431944 -0.40336992889960205 0.1264507697700042 0 255 0
0.1045920943271525 -0.40336992889960205 0.1264507697700042 0 255 0
0.11880191757998557 -0.40336992889960205 0.1264507697700042 0 255 0
0.1330117408328186 -0.40336992889960205 0.1264507697700042 0 255 0
0.14722156408565165 -0.40336992889960205 0.1264507697700042 0 255 0
0.16143138733848472 -0.40336992889960205 0.1264507697700042 0 255 0
0.17564121059131776 -0.40336992889960205 0.1264507697700042 0 255 0
0.1898510338441508 -0.40336992889960205 0.1264507697700042 0 255 0
0.20406085709698388 -0.40336992889960205 0.1264507697700042 0 255 0
0.21827068034981695 -0.40336992889960205 0.1264507697700042 0 255 0
0.23248050360265002 -0.40336992889960205 0.1264507697700042 0 255 0
0.24669032685548306 -0.40336992889960205 0.1264507697700042 0 255 0
0.26090015010831613 -0.40336992889960205 0.1264507697700042 0 255 0
0.2751099733611492 -0.40336992889960205 0.1264507697700042 0 255 0
0.2893197966139822 -0.40336992889960205 0.1264507697700042 0 255 0
0.30352961986681526 -0.40336992889960205 0.1264507697700042 0 255 0
0.31773944311964836 -0.40336992889960205 0.1264507697700042 0 255 0
0.3319492663724814 -0.40336992889960205 0.1264507697700042 0 255 0
-0.8474660636126622 -0.389160105646769 -0.22564341892269857 0 255 0
-0.833256240359829 -0.389160105646769 -0.22366536168285192 0 255 0
-0.819046417106996 -0.389160105646769 -0.2211927901330436 0 255 0
-0.804836593854163 -0.389160105646769 -0.21872021858323532 0 255 0
-0.7906267706013299 -0.389160105646769 -0.21674216134338867 0 255 0
-0.7764169473484969 -0.389160105646769 -0.21426958979358035 0 255 0
-0.7622071240956638 -0.389160105646769 -0.2122915325537337 0 255 0
-0.7479973008428308 -0.389160105646769 -0.2098189610039254 0 255 0
-0.7337874775899976 -0.389160105646769 -0.2073463894541171 0 255 0
-0.7195776543371646 -0.389160105646769 -0.20536833221427045 0 255 0
-0.7053678310843315 -0.389160105646769 -0.20289576066446216 0 255 0
-0.6911580078314985 -0.389160105646769 -0.20042318911465384 0 255 0
-0.6769481845786655 -0.389160105646769 -0.1984451318748072 0 255 0
-0.6627383613258324 -0.389160105646769 -0.1959725603249989 0 255 0
-0.6485285380729994 -0.389160105646769 -0.19399450308515226 0 255 0
-0.6343187148201663 -0.389160105646769 -0.19152193153534394 0 255 0
-0.6201088915673333 -0.389160105646769 -0.18904935998553565 0 255 0
-0.6058990683145001 -0.389160105646769 -0.187071302745689 0 255 0
-0.5916892450616671 -0.389160105646769 -0.1845987311958807 0 255 0
-0.577479421808834 -0.389160105646769 -0.18262067395603404 0 255 0
-0.563269598556001 -0.389160105646769 -0.18014810240622575 0 255 0
-0.549059775303168 -0.389160105646769 -0.17767553085641744 0 255 0
-0.5348499520503349 -0.389160105646769 -0.1756974736165708 0 255 0
-0.5206401287975019 -0.389160105646769 -0.17322490206676247 0 255 0
-0.5064303055446688 -0.389160105646769 -0.17124684482691585 0 255 0
-0.49222048229183574 -0.389160105646769 -0.16877427327710753 0 255 0
-0.4780106590390027 -0.389160105646769 -0.16630170172729922 0 255 0
-0.46380083578616965 -0.389160105646769 -0.16432364448745257 0 255 0
-0.4495910125333366 -0.389160105646769 -0.16185107293764428 0 255 0
-0.4353811892805035 -0.389160105646769 -0.15937850138783596 0 255 0
-0.42117136602767047 -0.389160105646769 -0.15740044414798932 0 255 0
-0.4069615427748374 -0.389160105646769 -0.15492787259818103 0 255 0
-0.3927517195220044 -0.389160105646769 -0.15294981535833438 0 255 0
-0.37854189626917134 -0.389160105646769 -0.15344432966829605 0 255 0
-0.36433207301633824 -0.389160105646769 -0.1514662724284494 0 255 0
-0.3501222497635052 -0.389160105646769 -0.14899370087864108 0 255 0
-0.33591242651067216 -0.389160105646769 -0.14701564363879444 0 255 0
-0.3217026032578391 -0.389160105646769 -0.14454307208898615 0 255 0
-0.30749278000500607 -0.389160105646769 -0.1425650148491395 0 255 0
-0.293282956752173 -0.389160105646769 -0.14058695760929285 0 255 0
-0.27907313349933993 -0.389160105646769 -0.13811438605948453 0 255 0
-0.2648633102465069 -0.389160105646769 -0.1361363288196379 0 255 0
-0.25065348699367385 -0.389160105646769 -0.1336637572698296 0 255 0
-0.2364436637408408 -0.389160105646769 -0.13168570002998295 0 255 0
-0.22223384048800776 -0.389160105646769 -0.12921312848017463 0 255 0
-0.2080240172351747 -0.389160105646769 -0.12723507124032798 0 255 0
-0.19381419398234165 -0.389160105646769 -0.1247624996905197 0 255 0
-0.17960437072950858 -0.389160105646769 -0.12278444245067305 0 255 0
-0.16539454747667554 -0.389160105646769 -0.1208063852108264 0 255 0
-0.1511847242238425 -0.389160105646769 -0.1183338136610181 0 255 0
-0.13697490097100942 -0.389160105646769 -0.11635575642117145 0 255 0
-0.12276507771817637 -0.389160105646769 -0.11388318487136315 0 255 0
-0.10855525446534332 -0.389160105646769 -0.1119051276315165 0 255 0
-0.09434543121251027 -0.389160105646769 -0.1094325560817082 0 255 0
-0.08013560795967721 -0.389160105646769 -0.10745449884186155 0 255 0
-0.06592578470684415 -0.389160105646769 0.1264507697700042 0 255 0
-0.051715961454011104 -0.389160105646769 0.1264507697700042 0 255 0
-0.03750613820117805 -0.389160105646769 0.1264507697700042 0 255 0
-0.02329631494834499 -0.389160105646769 0.1264507697700042 0 255 0
-0.009086491695511938 -0.389160105646769 0.1264507697700042 0 255 0
0.0051233315573211155 -0.389160105646769 0.1264507697700042 0 255 0
0.01933315481015417 -0.389160105646769 0.1264507697700042 0 255 0
0.03354297806298723 -0.389160105646769 0.1264507697700042 0 255 0
0.04775280131582028 -0.389160105646769 0.1264507697700042 0 255 0
0.06196262456865334 -0.389160105646769 0.1264507697700042 0 255 0
0.07617244782148638 -0.389160105646769 0.1264507697700042 0 255 0
0.09038227107431944 -0.389160105646769 0.1264507697700042 0 255 0
0.1045920943271525 -0.389160105646769 0.1264507697700042 0 255 0
0.11880191757998557 -0.389160105646769 0.1264507697700042 0 255 0
0.1330117408328186 -0.389160105646769 0.1264507697700042 0 255 0
0.14722156408565165 -0.389160105646769 0.1264507697700042 0 255 0
0.16143138733848472 -0.389160105646769 0.1264507697700042 0 255 0
0.17564121059131776 -0.389160105646769 0.1264507697700042 0 255 0
0.1898510338441508 -0.389160105646769 0.1264507697700042 0 255 0
0.20406085709698388 -0.389160105646769 0.1264507697700042 0 255 0
0.21827068034981695 -0.389160105646769 0.1264507697700042 0 255 0
0.23248050360265002 -0.389160105646769 0.1264507697700042 0 255 0
0.24669032685548306 -0.389160105646769 0.1264507697700042 0 255 0
0.26090015010831613 -0.389160105646769 0.1264507697700042 0 255 0
0.2751099733611492 -0.389160105646769 0.1264507697700042 0 255 0
0.2893197966139822 -0.389160105646769 0.1264507697700042 0 255 0
0.30352961986681526 -0.389160105646769 0.1264507697700042 0 255 0
0.31773944311964836 -0.389160105646769 0.1264507697700042 0 255 0
0.3319492663724814 -0.389160105646769 0.1264507697700042 0 255 0
0.34615908962531444 -0.389160105646769 0.1264507697700042 0 255 0
-0.833256240359829 -0.37495028239393596 -0.2202037615131203 0 255 0
-0.819046417106996 -0.37495028239393596 -0.21822570427327365 0 255 0
-0.804836593854163 -0.37495028239393596 -0.21575313272346536 0 255 0
-0.7906267706013299 -0.37495028239393596 -0.21328056117365704 0 255 0
-0.7764169473484969 -0.37495028239393596 -0.2113025039338104 0 255 0
-0.7622071240956638 -0.37495028239393596 -0.20882993238400208 0 255 0
-0.7479973008428308 -0.37495028239393596 -0.2063573608341938 0 255 0
-0.7337874775899976 -0.37495028239393596 -0.20437930359434714 0 255 0
-0.7195776543371646 -0.37495028239393596 -0.20190673204453882 0 255 0
-0.7053678310843315 -0.37495028239393596 -0.19992867480469217 0 255 0
-0.6911580078314985 -0.37495028239393596 -0.19745610325488389 0 255 0
-0.6769481845786655 -0.37495028239393596 -0.19498353170507557 0 255 0
-0.6627383613258324 -0.37495028239393596 -0.19300547446522892 0 255 0
-0.6485285380729994 -0.37495028239393596 -0.19053290291542063 0 255 0
-0.6343187148201663 -0.37495028239393596 -0.18855484567557398 0 255 0
-0.6201088915673333 -0.37495028239393596 -0.18608227412576567 0 255 0
-0.6058990683145001 -0.37495028239393596 -0.18360970257595738 0 255 0
-0.5916892450616671 -0.37495028239393596 -0.18163164533611073 0 255 0
-0.577479421808834 -0.37495028239393596 -0.17915907378630241 0 255 0
-0.563269598556001 -0.37495028239393596 -0.17718101654645577 0 255 0
-0.549059775303168 -0.37495028239393596 -0.17470844499664748 0 255 0
-0.5348499520503349 -0.37495028239393596 -0.17223587344683916 0 255 0
-0.5206401287975019 -0.37495028239393596 -0.1702578162069925 0 255 0
-0.5064303055446688 -0.37495028239393596 -0.16778524465718422 0 255 0
-0.49222048229183574 -0.37495028239393596 -0.1653126731073759 0 255 0
-0.4780106590390027 -0.37495028239393596 -0.16333461586752926 0 255 0
-0.46380083578616965 -0.37495028239393596 -0.16086204431772094 0 255 0
-0.4495910125333366 -0.37495028239393596 -0.15888398707787432 0 255 0
-0.4353811892805035 -0.37495028239393596 -0.156411415528066 0 255 0
-0.42117136602767047 -0.37495028239393596 -0.1539388439782577 0 255 0
-0.4069615427748374 -0.37495028239393596 -0.15196078673841104 0 255 0
-0.3927517195220044 -0.37495028239393596 -0.14948821518860275 0 255 0
-0.37854189626917134 -0.37495028239393596 -0.1475101579487561 0 255 0
-0.36433207301633824 -0.37495028239393596 -0.14849918656867941 0 255 0
-0.3501222497635052 -0.37495028239393596 -0.14602661501887113 0 255 0
-0.33591242651067216 -0.37495028239393596 -0.14404855777902448 0 255 0
-0.3217026032578391 -0.37495028239393596 -0.14157598622921616 0 255 0
-0.30749278000500607 -0.37495028239393596 -0.1395979289893695 0 255 0
-0.293282956752173 -0.37495028239393596 -0.13712535743956122 0 255 0
-0.27907313349933993 -0.37495028239393596 -0.13514730019971458 0 255 0
-0.2648633102465069 -0.37495028239393596 -0.13267472864990626 0 255 0
-0.25065348699367385 -0.37495028239393596 -0.1306966714100596 0 255 0
-0.2364436637408408 -0.37495028239393596 -0.128718614170213 0 255 0
-0.22223384048800776 -0.37495028239393596 -0.12624604262040467 0 255 0
-0.2080240172351747 -0.37495028239393596 -0.12426798538055803 0 255 0
-0.19381419398234165 -0.37495028239393596 -0.12179541383074972 0 255 0
-0.17960437072950858 -0.37495028239393596 -0.11981735659090308 0 255 0
-0.16539454747667554 -0.37495028239393596 -0.11734478504109477 0 255 0
-0.1511847242238425 -0.37495028239393596 -0.11536672780124813 0 255 0
-0.13697490097100942 -0.37495028239393596 -0.11289415625143982 0 255 0
-0.12276507771817637 -0.37495028239393596 -0.11091609901159317 0 255 0
-0.10855525446534332 -0.37495028239393596 -0.10844352746178487 0 255 0
-0.09434543121251027 -0.37495028239393596 -0.10646547022193822 0 255 0
-0.08013560795967721 -0.37495028239393596 -0.10448741298209158 0 255 0
-0.06592578470684415 -0.37495028239393596 0.1264507697700042 0 255 0
-0.051715961454011104 -0.37495028239393596 0.1264507697700042 0 255 0
-0.03750613820117805 -0.37495028239393596 0.1264507697700042 0 255 0
-0.02329631494834499 -0.37495028239393596 0.1264507697700042 0 255 0
-0.009086491695511938 -0.37495028239393596 0.1264507697700042 0 255 0
0.0051233315573211155 -0.37495028239393596 0.1264507697700042 0 255 0
0.01933315481015417 -0.37495028239393596 0.1264507697700042 0 255 0
0.03354297806298723 -0.37495028239393596 0.1264507697700042 0 255 0
0.04775280131582028 -0.37495028239393596 0.1264507697700042 0 255 0
0.06196262456865334 -0.37495028239393596 0.1264507697700042 0 255 0
0.07617244782148638 -0.37495028239393596 0.1264507697700042 0 255 0
0.09038227107431944 -0.37495028239393596 0.1264507697700042 0 255 0
0.1045920943271525 -0.37495028239393596 0.1264507697700042 0 255 0
0.11880191757998557 -0.37495028239393596 0.1264507697700042 0 255 0
0.1330117408328186 -0.37495028239393596 0.1264507697700042 0 255 0
0.14722156408565165 -0.37495028239393596 0.1264507697700042 0 255 0
0.16143138733848472 -0.37495028239393596 0.1264507697700042 0 255 0
0.17564121059131776 -0.37495028239393596 0.1264507697700042 0 255 0
0.1898510338441508 -0.37495028239393596 0.1264507697700042 0 255 0
0.20406085709698388 -0.37495028239393596 0.1264507697700042 0 255 0
0.21827068034981695 -0.37495028239393596 0.1264507697700042 0 255 0
0.23248050360265002 -0.37495028239393596 0.1264507697700042 0 255 0
0.24669032685548306 -0.37495028239393596 0.1264507697700042 0 255 0
0.26090015010831613 -0.37495028239393596 0.1264507697700042 0 255 0
0.2751099733611492 -0.37495028239393596 0.1264507697700042 0 255 0
0.2893197966139822 -0.37495028239393596 0.1264507697700042 0 255 0
0.30352961986681526 -0.37495028239393596 0.1264507697700042 0 255 0
0.31773944311964836 -0.37495028239393596 0.1264507697700042 0 255 0
0.3319492663724814 -0.37495028239393596 0.1264507697700042 0 255 0
0.34615908962531444 -0.37495028239393596 0.1264507697700042 0 255 0
-0.819046417106996 -0.3607404591411029 -0.21476410410354202 0 255 0
-0.804836593854163 -0.3607404591411029 -0.2122915325537337 0 255 0
-0.7906267706013299 -0.3607404591411029 -0.21031347531388708 0 255 0
-0.7764169473484969 -0.3607404591411029 -0.20784090376407877 0 255 0
-0.7622071240956638 -0.3607404591411029 -0.20586284652423212 0 255 0
-0.7479973008428308 -0.3607404591411029 -0.2033902749744238 0 255 0
-0.7337874775899976 -0.3607404591411029 -0.2009177034246155 0 255 0
-0.7195776543371646 -0.3607404591411029 -0.19893964618476886 0 255 0
-0.7053678310843315 -0.3607404591411029 -0.19646707463496055 0 255 0
-0.6911580078314985 -0.3607404591411029 -0.1944890173951139 0 255 0
-0.6769481845786655 -0.3607404591411029 -0.1920164458453056 0 255 0
-0.6627383613258324 -0.3607404591411029 -0.1895438742954973 0 255 0
-0.6485285380729994 -0.3607404591411029 -0.18756581705565065 0 255 0
-0.6343187148201663 -0.3607404591411029 -0.18509324550584236 0 255 0
-0.6201088915673333 -0.3607404591411029 -0.1831151882659957 0 255 0
-0.6058990683145001 -0.3607404591411029 -0.1806426167161874 0 255 0
-0.5916892450616671 -0.3607404591411029 -0.1781700451663791 0 255 0
-0.577479421808834 -0.3607404591411029 -0.17619198792653246 0 255 0
-0.563269598556001 -0.3607404591411029 -0.17371941637672414 0 255 0
-0.549059775303168 -0.3607404591411029 -0.17124684482691585 0 255 0
-0.5348499520503349 -0.3607404591411029 -0.1692687875870692 0 255 0
-0.5206401287975019 -0.3607404591411029 -0.16679621603726089 0 255 0
-0.5064303055446688 -0.3607404591411029 -0.16481815879741424 0 255 0
-0.49222048229183574 -0.3607404591411029 -0.16234558724760595 0 255 0
-0.4780106590390027 -0.3607404591411029 -0.15987301569779763 0 255 0
-0.46380083578616965 -0.3607404591411029 -0.15789495845795098 0 255 0
-0.4495910125333366 -0.3607404591411029 -0.1554223869081427 0 255 0
-0.4353811892805035 -0.3607404591411029 -0.15344432966829605 0 255 0
-0.42117136602767047 -0.3607404591411029 -0.15097175811848773 0 255 0
-0.4069615427748374 -0.3607404591411029 -0.14849918656867941 0 255 0
-0.3927517195220044 -0.3607404591411029 -0.1465211293288328 0 255 0
-0.37854189626917134 -0.3607404591411029 -0.14404855777902448 0 255 0
-0.36433207301633824 -0.3607404591411029 -0.1450375863989478 0 255 0
-0.3501222497635052 -0.3607404591411029 -0.14305952915910114 0 255 0
-0.33591242651067216 -0.3607404591411029 -0.14058695760929285 0 255 0
-0.3217026032578391 -0.3607404591411029 -0.1386089003694462 0 255 0
-0.30749278000500607 -0.3607404591411029 -0.13663084312959956 0 255 0
-0.293282956752173 -0.3607404591411029 -0.13415827157979124 0 255 0
-0.27907313349933993 -0.3607404591411029 -0.13218021433994462 0 255 0
-0.2648633102465069 -0.3607404591411029 -0.1297076427901363 0 255 0
-0.25065348699367385 -0.3607404591411029 -0.12772958555028965 0 255 0
-0.2364436637408408 -0.3607404591411029 -0.12525701400048134 0 255 0
-0.22223384048800776 -0.3607404591411029 -0.1232789567606347 0 255 0
-0.2080240172351747 -0.3607404591411029 -0.1208063852108264 0 255 0
-0.19381419398234165 -0.3607404591411029 -0.11882832797097975 0 255 0
-0.17960437072950858 -0.3607404591411029 -0.1168502707311331 0 255 0
-0.16539454747667554 -0.3607404591411029 -0.1143776991813248 0 255 0
-0.1511847242238425 -0.3607404591411029 -0.11239964194147815 0 255 0
-0.13697490097100942 -0.3607404591411029 -0.10992707039166985 0 255 0
-0.12276507771817637 -0.3607404591411029 -0.1079490131518232 0 255 0
-0.10855525446534332 -0.3607404591411029 -0.1054764416020149 0 255 0
-0.09434543121251027 -0.3607404591411029 -0.10349838436216827 0 255 0
-0.08013560795967721 -0.3607404591411029 -0.10102581281235995 0 255 0
-0.06592578470684415 -0.3607404591411029 -0.09904775557251332 0 255 0
-0.051715961454011104 -0.3607404591411029 0.1264507697700042 0 255 0
-0.03750613820117805 -0.3607404591411029 0.1264507697700042 0 255 0
-0.02329631494834499 -0.3607404591411029 0.1264507697700042 0 255 0
-0.009086491695511938 -0.3607404591411029 0.1264507697700042 0 255 0
0.0051233315573211155 -0.3607404591411029 0.1264507697700042 0 255 0
0.01933315481015417 -0.3607404591411029 0.1264507697700042 0 255 0
0.03354297806298723 -0.3607404591411029 0.1264507697700042 0 255 0
0.04775280131582028 -0.3607404591411029 0.1264507697700042 0 255 0
0.06196262456865334 -0.3607404591411029 0.1264507697700042 0 255 0
0.07617244782148638 -0.3607404591411029 0.1264507697700042 0 255 0
0.09038227107431944 -0.3607404591411029 0.1264507697700042 0 255 0
0.1045920943271525 -0.3607404591411029 0.1264507697700042 0 255 0
0.11880191757998557 -0.3607404591411029 0.1264507697700042 0 255 0
0.1330117408328186 -0.3607404591411029 0.1264507697700042 0 255 0
0.14722156408565165 -0.3607404591411029 0.1264507697700042 0 255 0
0.16143138733848472 -0.3607404591411029 0.1264507697700042 0 255 0
0.17564121059131776 -0.3607404591411029 0.1264507697700042 0 255 0
0.1898510338441508 -0.3607404591411029 0.1264507697700042 0 255 0
0.20406085709698388 -0.3607404591411029 0.1264507697700042 0 255 0
0.21827068034981695 -0.3607404591411029 0.1264507697700042 0 255 0
0.23248050360265002 -0.3607404591411029 0.1264507697700042 0 255 0
0.24669032685548306 -0.3607404591411029 0.1264507697700042 0 255 0
0.26090015010831613 -0.3607404591411029 0.1264507697700042 0 255 0
0.2751099733611492 -0.3607404591411029 0.1264507697700042 0 255 0
0.2893197966139822 -0.3607404591411029 0.1264507697700042 0 255 0
0.30352961986681526 -0.3607404591411029 0.1264507697700042 0 255 0
0.31773944311964836 -0.3607404591411029 0.1264507697700042 0 255 0
0.3319492663724814 -0.3607404591411029 0.1264507697700042 0 255 0
0.34615908962531444 -0.3607404591411029 0.1264507697700042 0 255 0
0.3603689128781475 -0.3607404591411029 0.1264507697700042 0 255 0
-0.819046417106996 -0.3465306358882698 -0.21179701824377206 0 255 0
-0.804836593854163 -0.3465306358882698 -0.20932444669396374 0 255 0
-0.7906267706013299 -0.3465306358882698 -0.20685187514415546 0 255 0
-0.7764169473484969 -0.3465306358882698 -0.2048738179043088 0 255 0
-0.7622071240956638 -0.3465306358882698 -0.2024012463545005 0 255 0
-0.7479973008428308 -0.3465306358882698 -0.20042318911465384 0 255 0
-0.7337874775899976 -0.3465306358882698 -0.19795061756484555 0 255 0
-0.7195776543371646 -0.3465306358882698 -0.19547804601503724 0 255 0
-0.7053678310843315 -0.3465306358882698 -0.1934999887751906 0 255 0
-0.6911580078314985 -0.3465306358882698 -0.19102741722538227 0 255 0
-0.6769481845786655 -0.3465306358882698 -0.18904935998553565 0 255 0
-0.6627383613258324 -0.3465306358882698 -0.18657678843572734 0 255 0
-0.6485285380729994 -0.3465306358882698 -0.18410421688591902 0 255 0
-0.6343187148201663 -0.3465306358882698 -0.18212615964607237 0 255 0
-0.6201088915673333 -0.3465306358882698 -0.17965358809626408 0 255 0
-0.6058990683145001 -0.3465306358882698 -0.17718101654645577 0 255 0
-0.5916892450616671 -0.3465306358882698 -0.17520295930660912 0 255 0
-0.577479421808834 -0.3465306358882698 -0.17273038775680083 0 255 0
-0.563269598556001 -0.3465306358882698 -0.17075233051695418 0 255 0
-0.549059775303168 -0.3465306358882698 -0.16827975896714586 0 255 0
-0.5348499520503349 -0.3465306358882698 -0.16580718741733758 0 255 0
-0.5206401287975019 -0.3465306358882698 -0.16382913017749093 0 255 0
-0.5064303055446688 -0.3465306358882698 -0.1613565586276826 0 255 0
-0.49222048229183574 -0.3465306358882698 -0.15937850138783596 0 255 0
-0.4780106590390027 -0.3465306358882698 -0.15690592983802767 0 255 0
-0.46380083578616965 -0.3465306358882698 -0.15443335828821936 0 255 0
-0.4495910125333366 -0.3465306358882698 -0.1524553010483727 0 255 0
-0.4353811892805035 -0.3465306358882698 -0.14998272949856442 0 255 0
-0.42117136602767047 -0.3465306358882698 -0.14800467225871777 0 255 0
-0.4069615427748374 -0.3465306358882698 -0.14553210070890946 0 255 0
-0.3927517195220044 -0.3465306358882698 -0.14305952915910114 0 255 0
-0.37854189626917134 -0.3465306358882698 -0.14108147191925452 0 255 0
-0.36433207301633824 -0.3465306358882698 -0.1386089003694462 0 255 0
-0.3501222497635052 -0.3465306358882698 -0.14009244329933118 0 255 0
-0.33591242651067216 -0.3465306358882698 -0.1376198717495229 0 255 0
-0.3217026032578391 -0.3465306358882698 -0.13564181450967625 0 255 0
-0.30749278000500607 -0.3465306358882698 -0.13316924295986793 0 255 0
-0.293282956752173 -0.3465306358882698 -0.13119118572002128 0 255 0
-0.27907313349933993 -0.3465306358882698 -0.128718614170213 0 255 0
-0.2648633102465069 -0.3465306358882698 -0.12674055693036634 0 255 0
-0.25065348699367385 -0.3465306358882698 -0.1247624996905197 0 255 0
-0.2364436637408408 -0.3465306358882698 -0.12228992814071138 0 255 0
-0.22223384048800776 -0.3465306358882698 -0.12031187090086475 0 255 0
-0.2080240172351747 -0.3465306358882698 -0.11783929935105643 0 255 0
-0.19381419398234165 -0.3465306358882698 -0.1158612421112098 0 255 0
-0.17960437072950858 -0.3465306358882698 -0.11338867056140148 0 255 0
-0.16539454747667554 -0.3465306358882698 -0.11141061332155484 0 255 0
-0.1511847242238425 -0.3465306358882698 -0.10893804177174653 0 255 0
-0.13697490097100942 -0.3465306358882698 -0.1069599845318999 0 255 0
-0.12276507771817637 -0.3465306358882698 -0.10448741298209158 0 255 0
-0.10855525446534332 -0.3465306358882698 -0.10250935574224494 0 255 0
-0.09434543121251027 -0.3465306358882698 -0.1005312985023983 0 255 0
-0.08013560795967721 -0.3465306358882698 -0.09805872695258999 0 255 0
-0.06592578470684415 -0.3465306358882698 -0.09608066971274334 0 255 0
-0.051715961454011104 -0.3465306358882698 0.1264507697700042 0 255 0
-0.03750613820117805 -0.3465306358882698 0.1264507697700042 0 255 0
-0.02329631494834499 -0.3465306358882698 0.1264507697700042 0 255 0
-0.009086491695511938 -0.3465306358882698 0.1264507697700042 0 255 0
0.0051233315573211155 -0.3465306358882698 0.1264507697700042 0 255 0
0.01933315481015417 -0.3465306358882698 0.1264507697700042 0 255 0
0.03354297806298723 -0.3465306358882698 0.1264507697700042 0 255 0
0.04775280131582028 -0.3465306358882698 0.1264507697700042 0 255 0
0.06196262456865334 -0.3465306358882698 0.1264507697700042 0 255 0
0.07617244782148638 -0.3465306358882698 0.1264507697700042 0 255 0
0.09038227107431944 -0.3465306358882698 0.1264507697700042 0 255 0
0.1045920943271525 -0.3465306358882698 0.1264507697700042 0 255 0
0.11880191757998557 -0.3465306358882698 0.1264507697700042 0 255 0
0.1330117408328186 -0.3465306358882698 0.1264507697700042 0 255 0
0.14722156408565165 -0.3465306358882698 0.1264507697700042 0 255 0
0.16143138733848472 -0.3465306358882698 0.1264507697700042 0 255 0
0.17564121059131776 -0.3465306358882698 0.1264507697700042 0 255 0
0.1898510338441508 -0.3465306358882698 0.1264507697700042 0 255 0
0.20406085709698388 -0.3465306358882698 0.1264507697700042 0 255 0
0.21827068034981695 -0.3465306358882698 0.1264507697700042 0 255 0
0.23248050360265002 -0.3465306358882698 0.1264507697700042 0 255 0
0.24669032685548306 -0.3465306358882698 0.1264507697700042 0 255 0
0.26090015010831613 -0.3465306358882698 0.1264507697700042 0 255 0
0.2751099733611492 -0.3465306358882698 0.1264507697700042 0 255 0
0.2893197966139822 -0.3465306358882698 0.1264507697700042 0 255 0
0.30352961986681526 -0.3465306358882698 0.1264507697700042 0 255 0
0.31773944311964836 -0.3465306358882698 0.1264507697700042 0 255 0
0.3319492663724814 -0.3465306358882698 0.1264507697700042 0 255 0
0.34615908962531444 -0.3465306358882698 0.1264507697700042 0 255 0
0.3603689128781475 -0.3465306358882698 0.1264507697700042 0 255 0
0.3745787361309805 -0.3465306358882698 0.1264507697700042 0 255 0
-0.804836593854163 -0.3323208126354368 -0.2063573608341938 0 255 0
-0.7906267706013299 -0.3323208126354368 -0.20388478928438547 0 255 0
-0.7764169473484969 -0.3323208126354368 -0.20141221773457718 0 255 0
-0.7622071240956638 -0.3323208126354368 -0.19943416049473053 0 255 0
-0.7479973008428308 -0.3323208126354368 -0.19696158894492222 0 255 0
-0.7337874775899976 -0.3323208126354368 -0.19498353170507557 0 255 0
-0.7195776543371646 -0.3323208126354368 -0.19251096015526728 0 255 0
-0.7053678310843315 -0.3323208126354368 -0.19003838860545896 0 255 0
-0.6911580078314985 -0.3323208126354368 -0.18806033136561232 0 255 0
-0.6769481845786655 -0.3323208126354368 -0.18558775981580403 0 255 0
-0.6627383613258324 -0.3323208126354368 -0.1831151882659957 0 255 0
-0.6485285380729994 -0.3323208126354368 -0.18113713102614906 0 255 0
-0.6343187148201663 -0.3323208126354368 -0.17866455947634075 0 255 0
-0.6201088915673333 -0.3323208126354368 -0.17668650223649413 0 255 0
-0.6058990683145001 -0.3323208126354368 -0.1742139306866858 0 255 0
-0.5916892450616671 -0.3323208126354368 -0.1717413591368775 0 255 0
-0.577479421808834 -0.3323208126354368 -0.16976330189703084 0 255 0
-0.563269598556001 -0.3323208126354368 -0.16729073034722255 0 255 0
-0.549059775303168 -0.3323208126354368 -0.1653126731073759 0 255 0
-0.5348499520503349 -0.3323208126354368 -0.1628401015575676 0 255 0
-0.5206401287975019 -0.3323208126354368 -0.1603675300077593 0 255 0
-0.5064303055446688 -0.3323208126354368 -0.15838947276791265 0 255 0
-0.49222048229183574 -0.3323208126354368 -0.15591690121810434 0 255 0
-0.4780106590390027 -0.3323208126354368 -0.1539388439782577 0 255 0
-0.46380083578616965 -0.3323208126354368 -0.1514662724284494 0 255 0
-0.4495910125333366 -0.3323208126354368 -0.14899370087864108 0 255 0
-0.4353811892805035 -0.3323208126354368 -0.14701564363879444 0 255 0
-0.42117136602767047 -0.3323208126354368 -0.14454307208898615 0 255 0
-0.4069615427748374 -0.3323208126354368 -0.14207050053917783 0 255 0
-0.3927517195220044 -0.3323208126354368 -0.14009244329933118 0 255 0
-0.37854189626917134 -0.3323208126354368 -0.1376198717495229 0 255 0
-0.36433207301633824 -0.3323208126354368 -0.13564181450967625 0 255 0
-0.3501222497635052 -0.3323208126354368 -0.13316924295986793 0 255 0
-0.33591242651067216 -0.3323208126354368 -0.1346527858897529 0 255 0
-0.3217026032578391 -0.3323208126354368 -0.13267472864990626 0 255 0
-0.30749278000500607 -0.3323208126354368 -0.13020215710009797 0 255 0
-0.293282956752173 -0.3323208126354368 -0.12822409986025132 0 255 0
-0.27907313349933993 -0.3323208126354368 -0.125751528310443 0 255 0
-0.2648633102465069 -0.3323208126354368 -0.12377347107059637 0 255 0
-0.25065348699367385 -0.3323208126354368 -0.12130089952078806 0 255 0
-0.2364436637408408 -0.3323208126354368 -0.11932284228094142 0 255 0
-0.22223384048800776 -0.3323208126354368 -0.1168502707311331 0 255 0
-0.2080240172351747 -0.3323208126354368 -0.11487221349128647 0 255 0
-0.19381419398234165 -0.3323208126354368 -0.11289415625143982 0 255 0
-0.17960437072950858 -0.3323208126354368 -0.11042158470163152 0 255 0
-0.16539454747667554 -0.3323208126354368 -0.10844352746178487 0 255 0
-0.1511847242238425 -0.3323208126354368 -0.10597095591197657 0 255 0
-0.13697490097100942 -0.3323208126354368 -0.10399289867212992 0 255 0
-0.12276507771817637 -0.3323208126354368 -0.10152032712232162 0 255 0
-0.10855525446534332 -0.3323208126354368 -0.09954226988247497 0 255 0
-0.09434543121251027 -0.3323208126354368 -0.09706969833266667 0 255 0
-0.08013560795967721 -0.3323208126354368 -0.09509164109282002 0 255 0
-0.06592578470684415 -0.3323208126354368 0.1264507697700042 0 255 0
-0.051715961454011104 -0.3323208126354368 0.1264507697700042 0 255 0
-0.03750613820117805 -0.3323208126354368 0.1264507697700042 0 255 0
-0.02329631494834499 -0.3323208126354368 0.1264507697700042 0 255 0
-0.009086491695511938 -0.3323208126354368 0.1264507697700042 0 255 0
0.0051233315573211155 -0.3323208126354368 0.1264507697700042 0 255 0
0.01933315481015417 -0.3323208126354368 0.1264507697700042 0 255 0
0.03354297806298723 -0.3323208126354368 0.1264507697700042 0 255 0
0.04775280131582028 -0.3323208126354368 0.1264507697700042 0 255 0
0.06196262456865334 -0.3323208126354368 0.1264507697700042 0 255 0
0.07617244782148638 -0.3323208126354368 0.1264507697700042 0 255 0
0.09038227107431944 -0.3323208126354368 0.1264507697700042 0 255 0
0.1045920943271525 -0.3323208126354368 0.1264507697700042 0 255 0
0.11880191757998557 -0.3323208126354368 0.1264507697700042 0 255 0
0.1330117408328186 -0.3323208126354368 0.1264507697700042 0 255 0
0.14722156408565165 -0.3323208126354368 0.1264507697700042 0 255 0
0.16143138733848472 -0.3323208126354368 0.1264507697700042 0 255 0
0.17564121059131776 -0.3323208126354368 0.1264507697700042 0 255 0
0.1898510338441508 -0.3323208126354368 0.1264507697700042 0 255 0
0.20406085709698388 -0.3323208126354368 0.1264507697700042 0 255 0
0.21827068034981695 -0.3323208126354368 0.1264507697700042 0 255 0
0.23248050360265002 -0.3323208126354368 0.1264507697700042 0 255 0
0.24669032685548306 -0.3323208126354368 0.1264507697700042 0 255 0
0.26090015010831613 -0.3323208126354368 0.1264507697700042 0 255 0
0.2751099733611492 -0.3323208126354368 0.1264507697700042 0 255 0
0.2893197966139822 -0.3323208126354368 0.1264507697700042 0 255 0
0.30352961986681526 -0.3323208126354368 0.1264507697700042 0 255 0
0.31773944311964836 -0.3323208126354368 0.1264507697700042 0 255 0
0.3319492663724814 -0.3323208126354368 0.1264507697700042 0 255 0
0.34615908962531444 -0.3323208126354368 0.1264507697700042 0 255 0
0.3603689128781475 -0.3323208126354368 0.1264507697700042 0 255 0
0.3745787361309805 -0.3323208126354368 0.1264507697700042 0 255 0
-0.7906267706013299 -0.31811098938260374 -0.2009177034246155 0 255 0
-0.7764169473484969 -0.31811098938260374 -0.1984451318748072 0 255 0
-0.7622071240956638 -0.31811098938260374 -0.1959725603249989 0 255 0
-0.7479973008428308 -0.31811098938260374 -0.19399450308515226 0 255 0
-0.7337874775899976 -0.31811098938260374 -0.19152193153534394 0 255 0
-0.7195776543371646 -0.31811098938260374 -0.18904935998553565 0 255 0
-0.7053678310843315 -0.31811098938260374 -0.187071302745689 0 255 0
-0.6911580078314985 -0.31811098938260374 -0.1845987311958807 0 255 0
-0.6769481845786655 -0.31811098938260374 -0.18262067395603404 0 255 0
-0.6627383613258324 -0.31811098938260374 -0.18014810240622575 0 255 0
-0.6485285380729994 -0.31811098938260374 -0.17767553085641744 0 255 0
-0.6343187148201663 -0.31811098938260374 -0.1756974736165708 0 255 0
-0.6201088915673333 -0.31811098938260374 -0.17322490206676247 0 255 0
-0.6058990683145001 -0.31811098938260374 -0.17124684482691585 0 255 0
-0.5916892450616671 -0.31811098938260374 -0.16877427327710753 0 255 0
-0.577479421808834 -0.31811098938260374 -0.16630170172729922 0 255 0
-0.563269598556001 -0.31811098938260374 -0.16432364448745257 0 255 0
-0.549059775303168 -0.31811098938260374 -0.16185107293764428 0 255 0
-0.5348499520503349 -0.31811098938260374 -0.15987301569779763 0 255 0
-0.5206401287975019 -0.31811098938260374 -0.15740044414798932 0 255 0
-0.5064303055446688 -0.31811098938260374 -0.15492787259818103 0 255 0
-0.49222048229183574 -0.31811098938260374 -0.15294981535833438 0 255 0
-0.4780106590390027 -0.31811098938260374 -0.15047724380852606 0 255 0
-0.46380083578616965 -0.31811098938260374 -0.14800467225871777 0 255 0
-0.4495910125333366 -0.31811098938260374 -0.14602661501887113 0 255 0
-0.4353811892805035 -0.31811098938260374 -0.1435540434690628 0 255 0
-0.42117136602767047 -0.31811098938260374 -0.14157598622921616 0 255 0
-0.4069615427748374 -0.31811098938260374 -0.13910341467940787 0 255 0
-0.3927517195220044 -0.31811098938260374 -0.13663084312959956 0 255 0
-0.37854189626917134 -0.31811098938260374 -0.1346527858897529 0 255 0
-0.36433207301633824 -0.31811098938260374 -0.13218021433994462 0 255 0
-0.3501222497635052 -0.31811098938260374 -0.13020215710009797 0 255 0
-0.33591242651067216 -0.31811098938260374 -0.13168570002998295 0 255 0
-0.3217026032578391 -0.31811098938260374 -0.12921312848017463 0 255 0
-0.30749278000500607 -0.31811098938260374 -0.12723507124032798 0 255 0
-0.293282956752173 -0.31811098938260374 -0.1247624996905197 0 255 0
-0.27907313349933993 -0.31811098938260374 -0.12278444245067305 0 255 0
-0.2648633102465069 -0.31811098938260374 -0.1208063852108264 0 255 0
-0.25065348699367385 -0.31811098938260374 -0.1183338136610181 0 255 0
-0.2364436637408408 -0.31811098938260374 -0.11635575642117145 0 255 0
-0.22223384048800776 -0.31811098938260374 -0.11388318487136315 0 255 0
-0.2080240172351747 -0.31811098938260374 -0.1119051276315165 0 255 0
-0.19381419398234165 -0.31811098938260374 -0.1094325560817082 0 255 0
-0.17960437072950858 -0.31811098938260374 -0.10745449884186155 0 255 0
-0.16539454747667554 -0.31811098938260374 -0.10498192729205325 0 255 0
-0.1511847242238425 -0.31811098938260374 -0.1030038700522066 0 255 0
-0.13697490097100942 -0.31811098938260374 -0.1005312985023983 0 255 0
-0.12276507771817637 -0.31811098938260374 -0.09855324126255165 0 255 0
-0.10855525446534332 -0.31811098938260374 -0.096575184022705 0 255 0
-0.09434543121251027 -0.31811098938260374 -0.0941026124728967 0 255 0
-0.08013560795967721 -0.31811098938260374 0.1264507697700042 0 255 0
-0.06592578470684415 -0.31811098938260374 0.1264507697700042 0 255 0
-0.051715961454011104 -0.31811098938260374 0.1264507697700042 0 255 0
-0.03750613820117805 -0.31811098938260374 0.1264507697700042 0 255 0
-0.02329631494834499 -0.31811098938260374 0.1264507697700042 0 255 0
-0.009086491695511938 -0.31811098938260374 0.1264507697700042 0 255 0
0.0051233315573211155 -0.31811098938260374 0.1264507697700042 0 255 0
0.01933315481015417 -0.31811098938260374 0.1264507697700042 0 255 0
0.03354297806298723 -0.31811098938260374 0.1264507697700042 0 255 0
0.04775280131582028 -0.31811098938260374 0.1264507697700042 0 255 0
0.06196262456865334 -0.31811098938260374 0.1264507697700042 0 255 0
0.07617244782148638 -0.31811098938260374 0.1264507697700042 0 255 0
0.09038227107431944 -0.31811098938260374 0.1264507697700042 0 255 0
0.1045920943271525 -0.31811098938260374 0.1264507697700042 0 255 0
0.11880191757998557 -0.31811098938260374 0.1264507697700042 0 255 0
0.1330117408328186 -0.31811098938260374 0.1264507697700042 0 255 0
0.14722156408565165 -0.31811098938260374 0.1264507697700042 0 255 0
0.16143138733848472 -0.31811098938260374 0.1264507697700042 0 255 0
0.17564121059131776 -0.31811098938260374 0.1264507697700042 0 255 0
0.1898510338441508 -0.31811098938260374 0.1264507697700042 0 255 0
0.20406085709698388 -0.31811098938260374 0.1264507697700042 0 255 0
0.21827068034981695 -0.31811098938260374 0.1264507697700042 0 255 0
0.23248050360265002 -0.31811098938260374 0.1264507697700042 0 255 0
0.24669032685548306 -0.31811098938260374 0.1264507697700042 0 255 0
0.26090015010831613 -0.31811098938260374 0.1264507697700042 0 255 0
0.2751099733611492 -0.31811098938260374 0.1264507697700042 0 255 0
0.2893197966139822 -0.31811098938260374 0.1264507697700042 0 255 0
0.30352961986681526 -0.31811098938260374 0.1264507697700042 0 255 0
0.31773944311964836 -0.31811098938260374 0.1264507697700042 0 255 0
0.3319492663724814 -0.31811098938260374 0.1264507697700042 0 255 0
0.34615908962531444 -0.31811098938260374 0.1264507697700042 0 255 0
0.3603689128781475 -0.31811098938260374 0.1264507697700042 0 255 0
0.3745787361309805 -0.31811098938260374 0.1264507697700042 0 255 0
0.3887885593838136 -0.31811098938260374 0.1264507697700042 0 255 0
-0.7906267706013299 -0.3039011661297707 -0.19745610325488389 0 255 0
-0.7764169473484969 -0.3039011661297707 -0.19498353170507557 0 255 0
-0.7622071240956638 -0.3039011661297707 -0.19300547446522892 0 255 0
-0.7479973008428308 -0.3039011661297707 -0.19053290291542063 0 255 0
-0.7337874775899976 -0.3039011661297707 -0.18855484567557398 0 255 0
-0.7195776543371646 -0.3039011661297707 -0.18608227412576567 0 255 0
-0.7053678310843315 -0.3039011661297707 -0.18360970257595738 0 255 0
-0.6911580078314985 -0.3039011661297707 -0.18163164533611073 0 255 0
-0.6769481845786655 -0.3039011661297707 -0.17915907378630241 0 255 0
-0.6627383613258324 -0.3039011661297707 -0.17718101654645577 0 255 0
-0.6485285380729994 -0.3039011661297707 -0.17470844499664748 0 255 0
-0.6343187148201663 -0.3039011661297707 -0.17223587344683916 0 255 0
-0.6201088915673333 -0.3039011661297707 -0.1702578162069925 0 255 0
-0.6058990683145001 -0.3039011661297707 -0.16778524465718422 0 255 0
-0.5916892450616671 -0.3039011661297707 -0.16580718741733758 0 255 0
-0.577479421808834 -0.3039011661297707 -0.16333461586752926 0 255 0
-0.563269598556001 -0.3039011661297707 -0.16086204431772094 0 255 0
-0.549059775303168 -0.3039011661297707 -0.15888398707787432 0 255 0
-0.5348499520503349 -0.3039011661297707 -0.156411415528066 0 255 0
-0.5206401287975019 -0.3039011661297707 -0.1539388439782577 0 255 0
-0.5064303055446688 -0.3039011661297707 -0.15196078673841104 0 255 0
-0.49222048229183574 -0.3039011661297707 -0.14948821518860275 0 255 0
-0.4780106590390027 -0.3039011661297707 -0.1475101579487561 0 255 0
-0.46380083578616965 -0.3039011661297707 -0.1450375863989478 0 255 0
-0.4495910125333366 -0.3039011661297707 -0.1425650148491395 0 255 0
-0.4353811892805035 -0.3039011661297707 -0.14058695760929285 0 255 0
-0.42117136602767047 -0.3039011661297707 -0.13811438605948453 0 255 0
-0.4069615427748374 -0.3039011661297707 -0.1361363288196379 0 255 0
-0.3927517195220044 -0.3039011661297707 -0.1336637572698296 0 255 0
-0.37854189626917134 -0.3039011661297707 -0.13119118572002128 0 255 0
-0.36433207301633824 -0.3039011661297707 -0.12921312848017463 0 255 0
-0.3501222497635052 -0.3039011661297707 -0.12674055693036634 0 255 0
-0.33591242651067216 -0.3039011661297707 -0.12426798538055803 0 255 0
-0.3217026032578391 -0.3039011661297707 -0.12624604262040467 0 255 0
-0.30749278000500607 -0.3039011661297707 -0.12426798538055803 0 255 0
-0.293282956752173 -0.3039011661297707 -0.12179541383074972 0 255 0
-0.27907313349933993 -0.3039011661297707 -0.11981735659090308 0 255 0
-0.2648633102465069 -0.3039011661297707 -0.11734478504109477 0 255 0
-0.25065348699367385 -0.3039011661297707 -0.11536672780124813 0 255 0
-0.2364436637408408 -0.3039011661297707 -0.11289415625143982 0 255 0
-0.22223384048800776 -0.3039011661297707 -0.11091609901159317 0 255 0
-0.2080240172351747 -0.3039011661297707 -0.10893804177174653 0 255 0
-0.19381419398234165 -0.3039011661297707 -0.10646547022193822 0 255 0
-0.17960437072950858 -0.3039011661297707 -0.10448741298209158 0 255 0
-0.16539454747667554 -0.3039011661297707 -0.10201484143228327 0 255 0
-0.1511847242238425 -0.3039011661297707 -0.10003678419243663 0 255 0
-0.13697490097100942 -0.3039011661297707 -0.09756421264262832 0 255 0
-0.12276507771817637 -0.3039011661297707 -0.09558615540278168 0 255 0
-0.10855525446534332 -0.3039011661297707 0.1264507697700042 0 255 0
-0.09434543121251027 -0.3039011661297707 0.1264507697700042 0 255 0
-0.08013560795967721 -0.3039011661297707 0.1264507697700042 0 255 0
-0.06592578470684415 -0.3039011661297707 0.1264507697700042 0 255 0
-0.051715961454011104 -0.3039011661297707 0.1264507697700042 0 255 0
-0.03750613820117805 -0.3039011661297707 0.1264507697700042 0 255 0
-0.02329631494834499 -0.3039011661297707 0.1264507697700042 0 255 0
-0.009086491695511938 -0.3039011661297707 0.1264507697700042 0 255 0
0.0051233315573211155 -0.3039011661297707 0.1264507697700042 0 255 0
0.01933315481015417 -0.3039011661297707 0.1264507697700042 0 255 0
0.03354297806298723 -0.3039011661297707 0.1264507697700042 0 255 0
0.04775280131582028 -0.3039011661297707 0.1264507697700042 0 255 0
0.06196262456865334 -0.3039011661297707 0.1264507697700042 0 255 0
0.07617244782148638 -0.3039011661297707 0.1264507697700042 0 255 0
0.09038227107431944 -0.3039011661297707 0.1264507697700042 0 255 0
0.1045920943271525 -0.3039011661297707 0.1264507697700042 0 255 0
0.11880191757998557 -0.3039011661297707 0.1264507697700042 0 255 0
0.1330117408328186 -0.3039011661297707 0.1264507697700042 0 255 0
0.14722156408565165 -0.3039011661297707 0.1264507697700042 0 255 0
0.16143138733848472 -0.3039011661297707 0.1264507697700042 0 255 0
0.17564121059131776 -0.3039011661297707 0.1264507697700042 0 255 0
0.1898510338441508 -0.3039011661297707 0.1264507697700042 0 255 0
0.20406085709698388 -0.3039011661297707 0.1264507697700042 0 255 0
0.21827068034981695 -0.3039011661297707 0.1264507697700042 0 255 0
0.23248050360265002 -0.3039011661297707 0.1264507697700042 0 255 0
0.24669032685548306 -0.3039011661297707 0.1264507697700042 0 255 0
0.26090015010831613 -0.3039011661297707 0.1264507697700042 0 255 0
0.2751099733611492 -0.3039011661297707 0.1264507697700042 0 255 0
0.2893197966139822 -0.3039011661297707 0.1264507697700042 0 255 0
0.30352961986681526 -0.3039011661297707 0.1264507697700042 0 255 0
0.31773944311964836 -0.3039011661297707 0.1264507697700042 0 255 0
0.3319492663724814 -0.3039011661297707 0.1264507697700042 0 255 0
0.34615908962531444 -0.3039011661297707 0.1264507697700042 0 255 0
0.3603689128781475 -0.3039011661297707 0.1264507697700042 0 255 0
0.3745787361309805 -0.3039011661297707 0.1264507697700042 0 255 0
